0.813802 -0.608984 -1.405310 0.000000 0.000000 0.000000 
1.072944 -1.209633 -0.654621 0.000000 0.000000 0.000000 
0.983413 -1.074954 -0.881483 0.000000 0.000000 0.000000 
1.048888 -1.657159 -0.499798 0.000000 0.000000 0.000000 
0.817293 -0.123974 -1.615163 0.000000 0.000000 0.000000 
1.356589 0.117978 -0.718451 0.000000 0.000000 0.000000 
1.099329 -0.310229 -1.006678 0.000000 0.000000 0.000000 
1.025903 0.054383 -1.306111 0.000000 0.000000 0.000000 
0.563842 -1.218234 -1.599178 0.000000 0.000000 0.000000 
0.645913 -1.652929 -1.252379 0.000000 0.000000 0.000000 
0.602896 -1.187472 -1.540147 0.000000 0.000000 0.000000 
0.822272 -1.361531 -1.053832 0.000000 0.000000 0.000000 
0.778212 -1.440352 -1.100749 0.000000 0.000000 0.000000 
0.551530 -1.069412 -1.688501 0.000000 0.000000 0.000000 
1.137107 -0.740024 -0.744580 0.000000 0.000000 0.000000 
0.753482 -1.510491 -1.115530 0.000000 0.000000 0.000000 
1.183296 -0.654436 -0.696713 0.000000 0.000000 0.000000 
0.592017 -1.139200 -1.581946 0.000000 0.000000 0.000000 
0.575688 -1.024141 -1.663692 0.000000 0.000000 0.000000 
0.695667 -1.606547 -1.180385 0.000000 0.000000 0.000000 
0.889247 -1.219770 -0.992304 0.000000 0.000000 0.000000 
0.907194 -0.842580 -1.127129 0.000000 0.000000 0.000000 
0.982751 -1.027049 -0.904086 0.000000 0.000000 0.000000 
1.091289 -1.139267 -0.651836 0.000000 0.000000 0.000000 
0.793680 -0.591631 -1.450537 0.000000 0.000000 0.000000 
0.739072 -0.591304 -1.552410 0.000000 0.000000 0.000000 
1.067620 0.104730 -1.250856 0.000000 0.000000 0.000000 
1.256743 0.005850 -0.854434 0.000000 0.000000 0.000000 
1.107963 0.113467 -1.179600 0.000000 0.000000 0.000000 
0.878121 -1.262972 -0.993757 0.000000 0.000000 0.000000 
0.557540 -1.499676 -1.485370 0.000000 0.000000 0.000000 
0.539789 -1.429093 -1.549925 0.000000 0.000000 0.000000 
0.810266 -1.073129 -1.204849 0.000000 0.000000 0.000000 
1.072849 -0.545727 -0.950955 0.000000 0.000000 0.000000 
0.838052 -1.192100 -1.100017 0.000000 0.000000 0.000000 
0.593670 -1.507000 -1.414798 0.000000 0.000000 0.000000 
0.581577 -1.559508 -1.413903 0.000000 0.000000 0.000000 
0.538156 -1.367765 -1.580324 0.000000 0.000000 0.000000 
0.871303 -1.125996 -1.067561 0.000000 0.000000 0.000000 
0.796784 -1.026898 -1.250588 0.000000 0.000000 0.000000 
0.642771 -0.781252 -1.647074 0.000000 0.000000 0.000000 
0.943853 -1.310956 -0.849902 0.000000 0.000000 0.000000 
0.658709 -0.784477 -1.615945 0.000000 0.000000 0.000000 
0.967702 -1.251713 -0.831901 0.000000 0.000000 0.000000 
1.029650 -1.297521 -0.696065 0.000000 0.000000 0.000000 
0.893247 -0.669802 -1.230184 0.000000 0.000000 0.000000 
0.610520 -0.660285 -1.761114 0.000000 0.000000 0.000000 
0.781746 -0.077096 -1.702293 0.000000 0.000000 0.000000 
1.018799 -1.503537 -0.624380 0.000000 0.000000 0.000000 
0.754324 -0.131116 -1.729279 0.000000 0.000000 0.000000 
0.997802 0.006679 -1.337179 0.000000 0.000000 0.000000 
1.088588 0.051210 -1.187920 0.000000 0.000000 0.000000 
1.066409 0.055882 -1.231321 0.000000 0.000000 0.000000 
1.138673 0.059701 -1.098407 0.000000 0.000000 0.000000 
1.267112 0.148419 -0.898717 0.000000 0.000000 0.000000 
1.282706 -0.240800 -0.696040 0.000000 0.000000 0.000000 
0.734898 -0.168807 -1.748655 0.000000 0.000000 0.000000 
1.270720 -0.186255 -0.742702 0.000000 0.000000 0.000000 
0.980145 -1.499055 -0.698386 0.000000 0.000000 0.000000 
0.749522 -0.308351 -1.659165 0.000000 0.000000 0.000000 
0.702812 -0.329330 -1.736821 0.000000 0.000000 0.000000 
1.085240 -0.282433 -1.045324 0.000000 0.000000 0.000000 
1.042100 -0.305225 -1.115522 0.000000 0.000000 0.000000 
1.003542 -1.627610 -0.597454 0.000000 0.000000 0.000000 
0.619112 -1.264242 -1.475693 0.000000 0.000000 0.000000 
0.658604 -1.267340 -1.400743 0.000000 0.000000 0.000000 
0.683649 -1.387493 -1.300489 0.000000 0.000000 0.000000 
0.758117 -1.030083 -1.321199 0.000000 0.000000 0.000000 
1.205655 -0.475222 -0.735006 0.000000 0.000000 0.000000 
0.718739 -1.125734 -1.351887 0.000000 0.000000 0.000000 
0.754195 -1.308832 -1.204159 0.000000 0.000000 0.000000 
0.455297 -1.678858 -1.595906 0.000000 0.000000 0.000000 
0.435332 -1.717981 -1.615647 0.000000 0.000000 0.000000 
1.249537 -0.236380 -0.759803 0.000000 0.000000 0.000000 
0.700966 -0.536175 -1.647988 0.000000 0.000000 0.000000 
0.629183 -0.688442 -1.713787 0.000000 0.000000 0.000000 
0.980114 -1.214634 -0.825320 0.000000 0.000000 0.000000 
1.067584 -1.119668 -0.704738 0.000000 0.000000 0.000000 
1.136389 -1.111653 -0.580137 0.000000 0.000000 0.000000 
0.790321 -0.678363 -1.418104 0.000000 0.000000 0.000000 
0.828220 -0.876570 -1.259085 0.000000 0.000000 0.000000 
0.647722 -0.911361 -1.579811 0.000000 0.000000 0.000000 
0.895293 -1.314116 -0.938954 0.000000 0.000000 0.000000 
0.872411 -1.367289 -0.957861 0.000000 0.000000 0.000000 
0.571530 -0.917062 -1.719205 0.000000 0.000000 0.000000 
0.602089 -0.912016 -1.664528 0.000000 0.000000 0.000000 
0.803734 -0.788645 -1.343922 0.000000 0.000000 0.000000 
0.870555 -0.073394 -1.538505 0.000000 0.000000 0.000000 
0.995270 -1.689901 -0.585078 0.000000 0.000000 0.000000 
0.934367 -1.134454 -0.946308 0.000000 0.000000 0.000000 
0.831187 -0.642238 -1.358091 0.000000 0.000000 0.000000 
0.865201 -0.781405 -1.232647 0.000000 0.000000 0.000000 
0.916715 -1.198246 -0.950735 0.000000 0.000000 0.000000 
0.823314 -0.680424 -1.355721 0.000000 0.000000 0.000000 
0.888090 -0.785113 -1.188351 0.000000 0.000000 0.000000 
1.004508 -0.716826 -1.001943 0.000000 0.000000 0.000000 
0.620624 -1.129007 -1.533204 0.000000 0.000000 0.000000 
0.806663 -1.434994 -1.050138 0.000000 0.000000 0.000000 
1.209748 -0.623346 -0.661305 0.000000 0.000000 0.000000 
0.574405 -1.140307 -1.614263 0.000000 0.000000 0.000000 
0.684501 -1.654526 -1.179783 0.000000 0.000000 0.000000 
0.968454 -1.671208 -0.643370 0.000000 0.000000 0.000000 
0.695113 -0.493116 -1.678100 0.000000 0.000000 0.000000 
0.923331 -1.609846 -0.754802 0.000000 0.000000 0.000000 
0.743067 -0.252181 -1.696246 0.000000 0.000000 0.000000 
0.758886 -0.063132 -1.751109 0.000000 0.000000 0.000000 
1.293095 -0.202545 -0.693752 0.000000 0.000000 0.000000 
0.766635 -0.478758 -1.551269 0.000000 0.000000 0.000000 
0.850202 -0.477844 -1.396002 0.000000 0.000000 0.000000 
0.810925 -0.478185 -1.469018 0.000000 0.000000 0.000000 
0.716614 -0.230852 -1.755038 0.000000 0.000000 0.000000 
0.937621 -1.557671 -0.751454 0.000000 0.000000 0.000000 
0.890463 0.105522 -1.581230 0.000000 0.000000 0.000000 
0.930241 0.150990 -1.527411 0.000000 0.000000 0.000000 
0.945348 -1.199481 -0.896844 0.000000 0.000000 0.000000 
0.842229 -0.977014 -1.188180 0.000000 0.000000 0.000000 
0.820361 -0.970634 -1.231766 0.000000 0.000000 0.000000 
1.230821 -0.725647 -0.576413 0.000000 0.000000 0.000000 
0.969615 -1.301851 -0.805972 0.000000 0.000000 0.000000 
1.045045 -1.250372 -0.688419 0.000000 0.000000 0.000000 
0.693204 -0.777040 -1.555003 0.000000 0.000000 0.000000 
0.616960 -0.781487 -1.695052 0.000000 0.000000 0.000000 
0.647171 -0.522803 -1.754168 0.000000 0.000000 0.000000 
0.996622 -0.531511 -1.099299 0.000000 0.000000 0.000000 
0.802642 -0.883016 -1.303859 0.000000 0.000000 0.000000 
0.948677 -0.179994 -1.345421 0.000000 0.000000 0.000000 
0.974495 -0.180431 -1.297130 0.000000 0.000000 0.000000 
0.990206 -0.322944 -1.204290 0.000000 0.000000 0.000000 
0.830907 -1.639687 -0.913664 0.000000 0.000000 0.000000 
0.806943 -1.326283 -1.098111 0.000000 0.000000 0.000000 
1.228902 -0.476979 -0.690915 0.000000 0.000000 0.000000 
0.921268 -0.137240 -1.415553 0.000000 0.000000 0.000000 
0.726560 -0.834688 -1.467149 0.000000 0.000000 0.000000 
0.856256 -1.205047 -1.060330 0.000000 0.000000 0.000000 
0.827247 -1.023652 -1.195286 0.000000 0.000000 0.000000 
0.551157 -1.556137 -1.472076 0.000000 0.000000 0.000000 
1.058126 -0.569313 -0.967862 0.000000 0.000000 0.000000 
0.811791 -1.196539 -1.146957 0.000000 0.000000 0.000000 
0.779751 -1.074567 -1.261053 0.000000 0.000000 0.000000 
1.133440 -0.909537 -0.675791 0.000000 0.000000 0.000000 
0.849085 -1.124150 -1.109774 0.000000 0.000000 0.000000 
0.898050 -1.146817 -1.008448 0.000000 0.000000 0.000000 
0.661758 -0.719144 -1.639409 0.000000 0.000000 0.000000 
0.873332 -1.221057 -1.021378 0.000000 0.000000 0.000000 
0.997401 -1.260852 -0.772499 0.000000 0.000000 0.000000 
0.681358 -0.727689 -1.599086 0.000000 0.000000 0.000000 
0.721354 -0.721923 -1.527148 0.000000 0.000000 0.000000 
1.030107 -1.197080 -0.740020 0.000000 0.000000 0.000000 
0.644499 -0.703820 -1.678397 0.000000 0.000000 0.000000 
0.654135 -0.843333 -1.598212 0.000000 0.000000 0.000000 
0.619208 -0.852227 -1.659307 0.000000 0.000000 0.000000 
0.916231 -1.310838 -0.901411 0.000000 0.000000 0.000000 
0.583917 -0.861825 -1.720770 0.000000 0.000000 0.000000 
0.697061 -0.900448 -1.492767 0.000000 0.000000 0.000000 
0.902515 -1.562075 -0.814889 0.000000 0.000000 0.000000 
0.825352 -1.543355 -0.966985 0.000000 0.000000 0.000000 
0.750013 -1.369841 -1.184734 0.000000 0.000000 0.000000 
0.710087 -1.436907 -1.229194 0.000000 0.000000 0.000000 
1.230393 -0.420003 -0.713554 0.000000 0.000000 0.000000 
1.010404 0.097875 -1.354386 0.000000 0.000000 0.000000 
1.195651 0.196510 -1.053293 0.000000 0.000000 0.000000 
1.150581 0.172523 -1.126551 0.000000 0.000000 0.000000 
1.071280 0.153962 -1.265999 0.000000 0.000000 0.000000 
1.106842 0.158673 -1.201854 0.000000 0.000000 0.000000 
1.268431 0.056705 -0.855346 0.000000 0.000000 0.000000 
1.116715 -1.027975 -0.654115 0.000000 0.000000 0.000000 
0.661361 -0.581591 -1.701508 0.000000 0.000000 0.000000 
0.976336 -1.122794 -0.873326 0.000000 0.000000 0.000000 
0.705735 -0.170472 -1.802240 0.000000 0.000000 0.000000 
0.930530 -0.592032 -1.195422 0.000000 0.000000 0.000000 
0.793175 -0.008565 -1.711574 0.000000 0.000000 0.000000 
0.779250 -0.124557 -1.685771 0.000000 0.000000 0.000000 
1.030477 -1.422586 -0.638736 0.000000 0.000000 0.000000 
0.921617 -1.082118 -0.993406 0.000000 0.000000 0.000000 
0.851551 -1.626563 -0.881062 0.000000 0.000000 0.000000 
0.893772 -0.524850 -1.293866 0.000000 0.000000 0.000000 
0.727982 -0.540175 -1.595877 0.000000 0.000000 0.000000 
0.666375 -0.659453 -1.657435 0.000000 0.000000 0.000000 
1.205781 0.111181 -0.996358 0.000000 0.000000 0.000000 
0.950622 -0.047488 -1.400907 0.000000 0.000000 0.000000 
1.237169 -0.009544 -0.884031 0.000000 0.000000 0.000000 
0.982756 0.103601 -1.408442 0.000000 0.000000 0.000000 
1.218428 -0.255978 -0.809012 0.000000 0.000000 0.000000 
1.132231 -0.190669 -0.998720 0.000000 0.000000 0.000000 
1.233948 -0.310553 -0.755755 0.000000 0.000000 0.000000 
0.808985 -1.266085 -1.121161 0.000000 0.000000 0.000000 
0.511424 -1.433754 -1.600686 0.000000 0.000000 0.000000 
0.850408 -1.267633 -1.043305 0.000000 0.000000 0.000000 
0.971330 -0.745960 -1.050753 0.000000 0.000000 0.000000 
0.852657 -1.361630 -0.997184 0.000000 0.000000 0.000000 
0.568100 -0.977503 -1.698632 0.000000 0.000000 0.000000 
0.594231 -0.976515 -1.650393 0.000000 0.000000 0.000000 
0.925251 -0.657292 -1.176144 0.000000 0.000000 0.000000 
1.012653 -1.129251 -0.802791 0.000000 0.000000 0.000000 
0.774168 -0.785527 -1.400390 0.000000 0.000000 0.000000 
1.105300 -0.199332 -1.045024 0.000000 0.000000 0.000000 
0.748288 -0.905827 -1.394937 0.000000 0.000000 0.000000 
0.840203 -1.509053 -0.954622 0.000000 0.000000 0.000000 
1.062694 -0.197836 -1.125062 0.000000 0.000000 0.000000 
1.032421 -0.061334 -1.242350 0.000000 0.000000 0.000000 
1.072363 -0.058946 -1.169007 0.000000 0.000000 0.000000 
1.006901 -0.043997 -1.297624 0.000000 0.000000 0.000000 
1.057929 -1.561971 -0.525418 0.000000 0.000000 0.000000 
0.957476 -1.362537 -0.801514 0.000000 0.000000 0.000000 
1.096592 -0.125935 -1.093988 0.000000 0.000000 0.000000 
0.508812 -1.221177 -1.700379 0.000000 0.000000 0.000000 
0.994473 -0.917308 -0.931204 0.000000 0.000000 0.000000 
0.599605 -1.655981 -1.337283 0.000000 0.000000 0.000000 
0.627183 -1.613246 -1.304971 0.000000 0.000000 0.000000 
0.648265 -1.561810 -1.288644 0.000000 0.000000 0.000000 
1.148493 -0.665188 -0.756750 0.000000 0.000000 0.000000 
1.166579 -0.719545 -0.698811 0.000000 0.000000 0.000000 
0.894168 -1.621884 -0.803759 0.000000 0.000000 0.000000 
0.815220 -1.602991 -0.959257 0.000000 0.000000 0.000000 
1.097242 -0.066721 -1.119193 0.000000 0.000000 0.000000 
0.976647 -0.300128 -1.239727 0.000000 0.000000 0.000000 
1.022524 -0.187033 -1.204713 0.000000 0.000000 0.000000 
0.861499 -0.189245 -1.503696 0.000000 0.000000 0.000000 
1.038590 -1.510232 -0.584524 0.000000 0.000000 0.000000 
0.912784 -1.498622 -0.824065 0.000000 0.000000 0.000000 
1.139265 -0.065821 -1.041310 0.000000 0.000000 0.000000 
0.717025 -0.911471 -1.450659 0.000000 0.000000 0.000000 
1.031425 -1.608359 -0.554099 0.000000 0.000000 0.000000 
1.087317 -0.168443 -1.092305 0.000000 0.000000 0.000000 
1.058644 -0.075246 -1.187293 0.000000 0.000000 0.000000 
0.689126 -0.296347 -1.777030 0.000000 0.000000 0.000000 
0.887721 -0.086895 -1.500505 0.000000 0.000000 0.000000 
1.172144 -0.235393 -0.904418 0.000000 0.000000 0.000000 
1.142071 -0.145983 -1.000323 0.000000 0.000000 0.000000 
0.949212 -0.374020 -1.257872 0.000000 0.000000 0.000000 
1.066746 -0.140159 -1.143243 0.000000 0.000000 0.000000 
1.113230 -0.147150 -1.053530 0.000000 0.000000 0.000000 
1.205738 -0.827418 -0.577742 0.000000 0.000000 0.000000 
0.778823 0.046829 -1.763021 0.000000 0.000000 0.000000 
0.915431 -0.430158 -1.295759 0.000000 0.000000 0.000000 
0.751936 -0.430516 -1.600171 0.000000 0.000000 0.000000 
0.897218 -0.281879 -1.395833 0.000000 0.000000 0.000000 
0.758031 -1.200638 -1.245277 0.000000 0.000000 0.000000 
0.473000 -1.735746 -1.537551 0.000000 0.000000 0.000000 
0.693285 -1.245509 -1.345874 0.000000 0.000000 0.000000 
0.692500 -1.332954 -1.308331 0.000000 0.000000 0.000000 
0.722270 -1.256315 -1.287059 0.000000 0.000000 0.000000 
1.359083 -0.014823 -0.654566 0.000000 0.000000 0.000000 
1.339731 -0.001026 -0.696770 0.000000 0.000000 0.000000 
1.133150 0.105041 -1.128919 0.000000 0.000000 0.000000 
0.967812 -0.780111 -1.042072 0.000000 0.000000 0.000000 
1.010549 -1.032152 -0.850026 0.000000 0.000000 0.000000 
0.970974 -0.066942 -1.354315 0.000000 0.000000 0.000000 
0.756883 -0.183235 -1.701265 0.000000 0.000000 0.000000 
0.845333 -1.552754 -0.925571 0.000000 0.000000 0.000000 
0.955513 0.193906 -1.499478 0.000000 0.000000 0.000000 
0.938590 0.104027 -1.490909 0.000000 0.000000 0.000000 
0.894576 0.053423 -1.550328 0.000000 0.000000 0.000000 
0.949569 -1.075952 -0.944085 0.000000 0.000000 0.000000 
0.909344 -0.882461 -1.105334 0.000000 0.000000 0.000000 
1.021918 0.005772 -1.291849 0.000000 0.000000 0.000000 
0.926972 0.005850 -1.468756 0.000000 0.000000 0.000000 
0.851744 -0.595484 -1.340652 0.000000 0.000000 0.000000 
0.783341 -1.685115 -0.982010 0.000000 0.000000 0.000000 
0.741804 -0.488165 -1.593328 0.000000 0.000000 0.000000 
0.945472 -1.513367 -0.756593 0.000000 0.000000 0.000000 
0.899490 -0.478484 -1.303898 0.000000 0.000000 0.000000 
0.966611 0.053643 -1.416234 0.000000 0.000000 0.000000 
0.933464 -0.027940 -1.441590 0.000000 0.000000 0.000000 
1.244896 -0.124177 -0.818499 0.000000 0.000000 0.000000 
1.224394 -0.076042 -0.878165 0.000000 0.000000 0.000000 
0.962359 0.002315 -1.401258 0.000000 0.000000 0.000000 
0.766902 -0.591625 -1.500423 0.000000 0.000000 0.000000 
1.267513 -0.489837 -0.613252 0.000000 0.000000 0.000000 
1.211714 -0.012867 -0.929967 0.000000 0.000000 0.000000 
1.183723 -0.174141 -0.910169 0.000000 0.000000 0.000000 
0.952960 -0.732364 -1.091038 0.000000 0.000000 0.000000 
0.849059 -1.413832 -0.980600 0.000000 0.000000 0.000000 
1.043151 -1.625962 -0.524402 0.000000 0.000000 0.000000 
0.626904 -0.969784 -1.592532 0.000000 0.000000 0.000000 
0.908527 -0.726856 -1.176270 0.000000 0.000000 0.000000 
0.902857 -1.370703 -0.899620 0.000000 0.000000 0.000000 
0.706792 -1.064571 -1.401427 0.000000 0.000000 0.000000 
0.904021 -0.238583 -1.402475 0.000000 0.000000 0.000000 
0.820405 -1.487814 -1.000977 0.000000 0.000000 0.000000 
0.992549 -1.604996 -0.628021 0.000000 0.000000 0.000000 
1.028898 -0.385265 -1.104411 0.000000 0.000000 0.000000 
0.741637 -0.357603 -1.651881 0.000000 0.000000 0.000000 
0.689572 -0.376931 -1.740251 0.000000 0.000000 0.000000 
0.857854 -0.526131 -1.360206 0.000000 0.000000 0.000000 
0.773170 -0.526430 -1.517828 0.000000 0.000000 0.000000 
0.883192 -0.906478 -1.143337 0.000000 0.000000 0.000000 
0.818973 -0.534919 -1.428718 0.000000 0.000000 0.000000 
1.108259 -1.202557 -0.591990 0.000000 0.000000 0.000000 
1.081113 -1.073136 -0.700291 0.000000 0.000000 0.000000 
1.119920 -0.495156 -0.885827 0.000000 0.000000 0.000000 
1.093566 -0.382173 -0.985322 0.000000 0.000000 0.000000 
0.565923 -1.329356 -1.545730 0.000000 0.000000 0.000000 
0.550137 -1.272974 -1.600290 0.000000 0.000000 0.000000 
0.609694 -1.548354 -1.366500 0.000000 0.000000 0.000000 
1.083415 -0.952673 -0.749741 0.000000 0.000000 0.000000 
0.587526 -1.286928 -1.524413 0.000000 0.000000 0.000000 
0.604432 -1.716915 -1.301110 0.000000 0.000000 0.000000 
0.711018 -1.698440 -1.110794 0.000000 0.000000 0.000000 
0.598882 -1.073189 -1.598605 0.000000 0.000000 0.000000 
0.690088 -1.505378 -1.235906 0.000000 0.000000 0.000000 
0.537558 -1.191556 -1.660042 0.000000 0.000000 0.000000 
0.624727 -1.081076 -1.546942 0.000000 0.000000 0.000000 
0.723178 -1.616400 -1.124739 0.000000 0.000000 0.000000 
0.502232 -1.265451 -1.692886 0.000000 0.000000 0.000000 
0.507178 -1.317616 -1.660403 0.000000 0.000000 0.000000 
1.047331 -0.823890 -0.874409 0.000000 0.000000 0.000000 
0.669944 -1.566063 -1.246363 0.000000 0.000000 0.000000 
1.116999 -0.911230 -0.705664 0.000000 0.000000 0.000000 
0.791759 -1.170804 -1.195754 0.000000 0.000000 0.000000 
0.778286 -1.143536 -1.233016 0.000000 0.000000 0.000000 
0.561278 -1.670462 -1.402222 0.000000 0.000000 0.000000 
0.859309 -1.074839 -1.112726 0.000000 0.000000 0.000000 
0.777045 -1.236501 -1.193857 0.000000 0.000000 0.000000 
0.856668 0.120265 -1.650764 0.000000 0.000000 0.000000 
0.828344 0.154075 -1.718609 0.000000 0.000000 0.000000 
0.943177 -0.424053 -1.246796 0.000000 0.000000 0.000000 
0.890870 -0.189391 -1.448916 0.000000 0.000000 0.000000 
1.176956 -0.007094 -0.997293 0.000000 0.000000 0.000000 
1.172411 -0.285522 -0.881557 0.000000 0.000000 0.000000 
1.017406 -0.115623 -1.246102 0.000000 0.000000 0.000000 
0.985176 -0.121402 -1.303564 0.000000 0.000000 0.000000 
1.024967 -0.829462 -0.913583 0.000000 0.000000 0.000000 
1.024893 -0.897504 -0.883369 0.000000 0.000000 0.000000 
1.312294 0.040645 -0.766469 0.000000 0.000000 0.000000 
0.839043 0.054047 -1.654059 0.000000 0.000000 0.000000 
1.250084 -0.603147 -0.595175 0.000000 0.000000 0.000000 
1.231999 -0.551695 -0.651817 0.000000 0.000000 0.000000 
0.872485 0.060677 -1.594716 0.000000 0.000000 0.000000 
0.906083 -1.022239 -1.049056 0.000000 0.000000 0.000000 
0.603169 -1.610435 -1.350963 0.000000 0.000000 0.000000 
1.146245 -0.538231 -0.817572 0.000000 0.000000 0.000000 
0.531956 -1.255216 -1.642080 0.000000 0.000000 0.000000 
0.625034 -1.654471 -1.290585 0.000000 0.000000 0.000000 
0.945662 -0.970829 -0.998257 0.000000 0.000000 0.000000 
0.657699 -1.506290 -1.295837 0.000000 0.000000 0.000000 
0.574597 -1.075560 -1.642787 0.000000 0.000000 0.000000 
0.736992 -1.564333 -1.122232 0.000000 0.000000 0.000000 
0.665137 -1.616122 -1.232985 0.000000 0.000000 0.000000 
1.305078 -0.124805 -0.706109 0.000000 0.000000 0.000000 
0.857538 -0.140523 -1.532808 0.000000 0.000000 0.000000 
0.902939 -1.429857 -0.873080 0.000000 0.000000 0.000000 
0.786665 -0.846867 -1.349748 0.000000 0.000000 0.000000 
0.688690 -0.591313 -1.646262 0.000000 0.000000 0.000000 
0.774214 -0.247445 -1.640336 0.000000 0.000000 0.000000 
0.986266 0.153571 -1.424195 0.000000 0.000000 0.000000 
0.782647 -1.552675 -1.042382 0.000000 0.000000 0.000000 
0.676367 -1.026477 -1.475098 0.000000 0.000000 0.000000 
1.304990 0.116765 -0.814034 0.000000 0.000000 0.000000 
1.153960 0.006723 -1.046296 0.000000 0.000000 0.000000 
0.860457 -1.440436 -0.947500 0.000000 0.000000 0.000000 
0.937944 -1.391680 -0.824900 0.000000 0.000000 0.000000 
0.879180 -0.654893 -1.263039 0.000000 0.000000 0.000000 
0.535590 -1.621718 -1.471819 0.000000 0.000000 0.000000 
0.927675 -0.782593 -1.115734 0.000000 0.000000 0.000000 
0.758621 -0.523253 -1.546350 0.000000 0.000000 0.000000 
1.114238 -1.131543 -0.612529 0.000000 0.000000 0.000000 
1.142365 -1.067036 -0.588908 0.000000 0.000000 0.000000 
0.790662 -0.526744 -1.485104 0.000000 0.000000 0.000000 
1.383302 0.138875 -0.678010 0.000000 0.000000 0.000000 
0.747557 -0.012041 -1.795004 0.000000 0.000000 0.000000 
0.749927 -0.730838 -1.469944 0.000000 0.000000 0.000000 
0.828094 -0.739357 -1.320529 0.000000 0.000000 0.000000 
0.965774 -1.435991 -0.753290 0.000000 0.000000 0.000000 
1.188798 -0.515613 -0.748390 0.000000 0.000000 0.000000 
1.280803 -0.365004 -0.644180 0.000000 0.000000 0.000000 
1.228625 0.111290 -0.953849 0.000000 0.000000 0.000000 
0.962409 -0.680764 -1.096453 0.000000 0.000000 0.000000 
1.276660 -0.441542 -0.617755 0.000000 0.000000 0.000000 
1.254393 0.100045 -0.900832 0.000000 0.000000 0.000000 
0.604815 -0.831393 -1.695413 0.000000 0.000000 0.000000 
0.686991 -0.838683 -1.539078 0.000000 0.000000 0.000000 
0.937418 -1.253485 -0.887527 0.000000 0.000000 0.000000 
0.823060 -0.764810 -1.318552 0.000000 0.000000 0.000000 
0.908924 -1.262860 -0.936425 0.000000 0.000000 0.000000 
0.670854 -0.882504 -1.549592 0.000000 0.000000 0.000000 
0.680633 -0.485451 -1.708495 0.000000 0.000000 0.000000 
0.902449 -1.660698 -0.771018 0.000000 0.000000 0.000000 
0.715758 -0.488615 -1.641649 0.000000 0.000000 0.000000 
0.928784 -0.480200 -1.248560 0.000000 0.000000 0.000000 
1.045105 -0.232539 -1.142348 0.000000 0.000000 0.000000 
0.994950 -1.560345 -0.643465 0.000000 0.000000 0.000000 
0.926258 -0.361824 -1.306074 0.000000 0.000000 0.000000 
0.988743 -0.381756 -1.180779 0.000000 0.000000 0.000000 
0.685424 -0.974152 -1.481567 0.000000 0.000000 0.000000 
0.807329 -1.560871 -0.992747 0.000000 0.000000 0.000000 
1.287247 -0.076923 -0.760686 0.000000 0.000000 0.000000 
0.955446 -1.605172 -0.697060 0.000000 0.000000 0.000000 
0.952702 -0.291845 -1.288029 0.000000 0.000000 0.000000 
0.911999 -0.312108 -1.354814 0.000000 0.000000 0.000000 
0.942730 -1.663009 -0.694948 0.000000 0.000000 0.000000 
0.871494 -0.312611 -1.430045 0.000000 0.000000 0.000000 
1.214739 -0.664341 -0.633720 0.000000 0.000000 0.000000 
0.828183 0.001566 -1.650879 0.000000 0.000000 0.000000 
0.809696 0.174869 -1.762624 0.000000 0.000000 0.000000 
1.111657 -0.972521 -0.688276 0.000000 0.000000 0.000000 
1.090628 -0.494917 -0.940501 0.000000 0.000000 0.000000 
1.089474 -0.413981 -0.978755 0.000000 0.000000 0.000000 
1.072674 -1.492586 -0.528901 0.000000 0.000000 0.000000 
0.959710 0.098708 -1.449193 0.000000 0.000000 0.000000 
1.322340 0.186072 -0.812629 0.000000 0.000000 0.000000 
1.157523 -0.068131 -1.006267 0.000000 0.000000 0.000000 
0.778637 0.223097 -1.841998 0.000000 0.000000 0.000000 
0.815386 0.057661 -1.699741 0.000000 0.000000 0.000000 
0.868861 -0.377692 -1.405918 0.000000 0.000000 0.000000 
0.895087 -0.381766 -1.355245 0.000000 0.000000 0.000000 
0.821113 -0.356584 -1.504283 0.000000 0.000000 0.000000 
0.732947 -0.125857 -1.771450 0.000000 0.000000 0.000000 
1.004189 -1.494428 -0.655659 0.000000 0.000000 0.000000 
1.109504 -0.796804 -0.770669 0.000000 0.000000 0.000000 
1.100247 -0.720823 -0.821808 0.000000 0.000000 0.000000 
0.585269 -1.328104 -1.510252 0.000000 0.000000 0.000000 
0.627349 -1.576995 -1.320833 0.000000 0.000000 0.000000 
0.542825 -1.312767 -1.596159 0.000000 0.000000 0.000000 
0.624855 -1.506518 -1.356919 0.000000 0.000000 0.000000 
0.576208 -1.272166 -1.552084 0.000000 0.000000 0.000000 
1.147983 -0.782453 -0.705390 0.000000 0.000000 0.000000 
0.816189 -0.067807 -1.642276 0.000000 0.000000 0.000000 
1.065928 -1.381484 -0.591029 0.000000 0.000000 0.000000 
0.950012 -0.491272 -1.204077 0.000000 0.000000 0.000000 
1.111525 -1.312522 -0.536851 0.000000 0.000000 0.000000 
0.665659 -1.075316 -1.473258 0.000000 0.000000 0.000000 
1.043595 -0.428440 -1.057772 0.000000 0.000000 0.000000 
0.755636 -0.659222 -1.491256 0.000000 0.000000 0.000000 
0.780660 -0.637291 -1.454423 0.000000 0.000000 0.000000 
0.820913 -0.929857 -1.248927 0.000000 0.000000 0.000000 
0.725383 -0.654196 -1.549857 0.000000 0.000000 0.000000 
0.699379 -0.653184 -1.598750 0.000000 0.000000 0.000000 
1.056089 -1.174176 -0.701836 0.000000 0.000000 0.000000 
0.862976 -0.900801 -1.183530 0.000000 0.000000 0.000000 
0.673727 -0.542668 -1.695836 0.000000 0.000000 0.000000 
0.589630 -0.781894 -1.745784 0.000000 0.000000 0.000000 
1.196502 -0.375618 -0.796488 0.000000 0.000000 0.000000 
0.747208 -1.075875 -1.321093 0.000000 0.000000 0.000000 
0.515910 -1.561550 -1.535321 0.000000 0.000000 0.000000 
1.179888 -0.473116 -0.783946 0.000000 0.000000 0.000000 
0.495726 -1.519634 -1.591619 0.000000 0.000000 0.000000 
0.746205 -1.658772 -1.062941 0.000000 0.000000 0.000000 
0.549449 -1.124831 -1.667657 0.000000 0.000000 0.000000 
0.611081 -1.028332 -1.595890 0.000000 0.000000 0.000000 
0.980489 -0.951910 -0.941819 0.000000 0.000000 0.000000 
0.958225 -0.903465 -1.004905 0.000000 0.000000 0.000000 
0.642092 -1.013495 -1.544739 0.000000 0.000000 0.000000 
0.760215 -1.609902 -1.058643 0.000000 0.000000 0.000000 
1.095788 -0.781625 -0.802992 0.000000 0.000000 0.000000 
0.720918 -1.510348 -1.176256 0.000000 0.000000 0.000000 
0.697950 -1.553102 -1.199971 0.000000 0.000000 0.000000 
1.043478 -0.958463 -0.821555 0.000000 0.000000 0.000000 
0.517648 -1.650614 -1.492353 0.000000 0.000000 0.000000 
1.047881 -0.667979 -0.942933 0.000000 0.000000 0.000000 
0.532604 -1.687042 -1.448243 0.000000 0.000000 0.000000 
0.811861 -1.127956 -1.177420 0.000000 0.000000 0.000000 
0.500491 -1.706637 -1.499324 0.000000 0.000000 0.000000 
1.185565 -0.875025 -0.594086 0.000000 0.000000 0.000000 
0.882071 -1.060007 -1.076939 0.000000 0.000000 0.000000 
0.867717 -1.025100 -1.119250 0.000000 0.000000 0.000000 
1.179856 -0.783069 -0.645741 0.000000 0.000000 0.000000 
1.144395 -0.591345 -0.797326 0.000000 0.000000 0.000000 
1.096843 -0.849711 -0.770656 0.000000 0.000000 0.000000 
1.074938 -0.733084 -0.863488 0.000000 0.000000 0.000000 
1.141726 -0.843048 -0.690016 0.000000 0.000000 0.000000 
0.900834 -1.071596 -1.036816 0.000000 0.000000 0.000000 
1.210066 -0.767599 -0.596363 0.000000 0.000000 0.000000 
1.125784 -0.655484 -0.803383 0.000000 0.000000 0.000000 
1.087964 0.153666 -1.234787 0.000000 0.000000 0.000000 
1.185028 0.148595 -1.051706 0.000000 0.000000 0.000000 
1.168983 0.120401 -1.069021 0.000000 0.000000 0.000000 
1.148282 -0.360497 -0.893061 0.000000 0.000000 0.000000 
1.185215 -0.976668 -0.549394 0.000000 0.000000 0.000000 
0.655076 -0.949275 -1.549199 0.000000 0.000000 0.000000 
0.735534 -0.774970 -1.477070 0.000000 0.000000 0.000000 
0.767078 -0.928814 -1.349680 0.000000 0.000000 0.000000 
0.527539 -1.470131 -1.554439 0.000000 0.000000 0.000000 
0.569879 -1.419822 -1.498007 0.000000 0.000000 0.000000 
1.180741 -0.331739 -0.845424 0.000000 0.000000 0.000000 
1.359642 0.185466 -0.742869 0.000000 0.000000 0.000000 
0.885147 0.202282 -1.634296 0.000000 0.000000 0.000000 
1.036242 0.103919 -1.308947 0.000000 0.000000 0.000000 
1.023295 0.152999 -1.354960 0.000000 0.000000 0.000000 
1.069663 -0.428832 -1.009036 0.000000 0.000000 0.000000 
0.963086 -1.007253 -0.949551 0.000000 0.000000 0.000000 
0.829800 -0.285445 -1.519834 0.000000 0.000000 0.000000 
1.060463 -0.382174 -1.046987 0.000000 0.000000 0.000000 
0.751674 0.104055 -1.839124 0.000000 0.000000 0.000000 
1.015259 -0.333666 -1.152836 0.000000 0.000000 0.000000 
0.997364 -0.197710 -1.246819 0.000000 0.000000 0.000000 
0.850631 -0.323929 -1.463861 0.000000 0.000000 0.000000 
0.965370 -0.243067 -1.286188 0.000000 0.000000 0.000000 
0.934867 -0.233191 -1.347416 0.000000 0.000000 0.000000 
1.267685 -0.048784 -0.809679 0.000000 0.000000 0.000000 
0.667494 -0.428045 -1.758578 0.000000 0.000000 0.000000 
0.910080 -0.060911 -1.470444 0.000000 0.000000 0.000000 
1.327295 -0.052341 -0.697046 0.000000 0.000000 0.000000 
1.020924 -0.447139 -1.091663 0.000000 0.000000 0.000000 
0.659568 -0.475919 -1.751988 0.000000 0.000000 0.000000 
0.989650 -0.492845 -1.129536 0.000000 0.000000 0.000000 
0.664311 -1.208205 -1.416490 0.000000 0.000000 0.000000 
0.657358 -1.132885 -1.463043 0.000000 0.000000 0.000000 
0.737841 -1.008851 -1.368442 0.000000 0.000000 0.000000 
0.444532 -1.617244 -1.643445 0.000000 0.000000 0.000000 
0.918703 -0.532487 -1.244017 0.000000 0.000000 0.000000 
0.943237 -0.677597 -1.133581 0.000000 0.000000 0.000000 
1.023544 -1.078800 -0.805010 0.000000 0.000000 0.000000 
0.939264 -1.462951 -0.790648 0.000000 0.000000 0.000000 
0.819789 -0.723261 -1.343180 0.000000 0.000000 0.000000 
0.959621 -0.527407 -1.170057 0.000000 0.000000 0.000000 
1.093543 -1.268619 -0.589934 0.000000 0.000000 0.000000 
0.519210 -1.366378 -1.616238 0.000000 0.000000 0.000000 
0.498012 -1.379468 -1.649888 0.000000 0.000000 0.000000 
0.564087 -1.609434 -1.424213 0.000000 0.000000 0.000000 
0.756037 -1.430897 -1.146277 0.000000 0.000000 0.000000 
1.195654 -0.720522 -0.644211 0.000000 0.000000 0.000000 
0.474020 -1.441048 -1.667112 0.000000 0.000000 0.000000 
1.355186 0.057432 -0.694058 0.000000 0.000000 0.000000 
0.848422 -0.843661 -1.236131 0.000000 0.000000 0.000000 
0.630067 -0.911134 -1.612801 0.000000 0.000000 0.000000 
0.711735 -0.126179 -1.810820 0.000000 0.000000 0.000000 
0.869184 -1.509489 -0.900438 0.000000 0.000000 0.000000 
0.757149 -0.846078 -1.405084 0.000000 0.000000 0.000000 
0.719880 -0.062998 -1.823831 0.000000 0.000000 0.000000 
0.689654 -1.455227 -1.259086 0.000000 0.000000 0.000000 
0.989900 0.045268 -1.369113 0.000000 0.000000 0.000000 
1.281200 0.116507 -0.858236 0.000000 0.000000 0.000000 
1.045561 -0.010858 -1.240386 0.000000 0.000000 0.000000 
0.933522 0.056679 -1.479229 0.000000 0.000000 0.000000 
1.208705 -0.173293 -0.864010 0.000000 0.000000 0.000000 
1.279193 -0.127146 -0.753284 0.000000 0.000000 0.000000 
0.788646 -0.145699 -1.658836 0.000000 0.000000 0.000000 
0.833512 -0.121974 -1.585840 0.000000 0.000000 0.000000 
1.000392 -0.770775 -0.985543 0.000000 0.000000 0.000000 
1.348348 -0.094123 -0.639189 0.000000 0.000000 0.000000 
0.873383 -0.591231 -1.302238 0.000000 0.000000 0.000000 
1.099518 -0.890115 -0.747648 0.000000 0.000000 0.000000 
0.748897 0.053296 -1.821653 0.000000 0.000000 0.000000 
1.297458 -0.005271 -0.773627 0.000000 0.000000 0.000000 
0.936206 -0.709721 -1.132350 0.000000 0.000000 0.000000 
0.629429 -1.354976 -1.415999 0.000000 0.000000 0.000000 
1.110813 -0.434191 -0.929988 0.000000 0.000000 0.000000 
0.586560 -1.464216 -1.447128 0.000000 0.000000 0.000000 
0.519021 -1.508701 -1.553100 0.000000 0.000000 0.000000 
0.730272 -1.071808 -1.354459 0.000000 0.000000 0.000000 
0.482258 -1.569487 -1.594470 0.000000 0.000000 0.000000 
1.208211 -0.124279 -0.886794 0.000000 0.000000 0.000000 
0.895649 0.151475 -1.592068 0.000000 0.000000 0.000000 
0.917506 0.103217 -1.529825 0.000000 0.000000 0.000000 
0.720289 -0.289465 -1.722046 0.000000 0.000000 0.000000 
0.965423 -1.567006 -0.695499 0.000000 0.000000 0.000000 
1.029486 -1.372550 -0.662902 0.000000 0.000000 0.000000 
0.835103 -0.409163 -1.454767 0.000000 0.000000 0.000000 
0.694595 -0.422794 -1.710434 0.000000 0.000000 0.000000 
0.725165 -0.428704 -1.650851 0.000000 0.000000 0.000000 
1.240915 -0.185253 -0.798671 0.000000 0.000000 0.000000 
0.712323 -1.181680 -1.338882 0.000000 0.000000 0.000000 
0.727278 -1.323309 -1.247843 0.000000 0.000000 0.000000 
0.791714 -1.507459 -1.045660 0.000000 0.000000 0.000000 
1.192506 -0.048675 -0.949776 0.000000 0.000000 0.000000 
0.638975 -1.158840 -1.485710 0.000000 0.000000 0.000000 
0.981828 -1.375698 -0.750279 0.000000 0.000000 0.000000 
0.950247 -0.147718 -1.356893 0.000000 0.000000 0.000000 
0.670312 -0.362449 -1.782591 0.000000 0.000000 0.000000 
1.177854 -0.436526 -0.804057 0.000000 0.000000 0.000000 
0.937194 -1.031201 -0.987101 0.000000 0.000000 0.000000 
0.628567 -0.732680 -1.695202 0.000000 0.000000 0.000000 
0.911617 -0.952641 -1.069793 0.000000 0.000000 0.000000 
0.987857 -1.327491 -0.760552 0.000000 0.000000 0.000000 
1.035264 -1.142546 -0.754740 0.000000 0.000000 0.000000 
0.783782 -0.730916 -1.406843 0.000000 0.000000 0.000000 
0.865584 -1.313896 -0.994397 0.000000 0.000000 0.000000 
0.725837 -0.945940 -1.418868 0.000000 0.000000 0.000000 
1.106349 -1.364238 -0.523423 0.000000 0.000000 0.000000 
1.066105 -0.308190 -1.069481 0.000000 0.000000 0.000000 
1.163902 -0.823405 -0.657467 0.000000 0.000000 0.000000 
1.057397 -1.451295 -0.575780 0.000000 0.000000 0.000000 
1.135939 -0.770393 -0.733206 0.000000 0.000000 0.000000 
1.123145 -0.235928 -0.995456 0.000000 0.000000 0.000000 
0.494971 -1.622822 -1.546994 0.000000 0.000000 0.000000 
0.468312 -1.521125 -1.642024 0.000000 0.000000 0.000000 
0.914496 -0.194909 -1.402442 0.000000 0.000000 0.000000 
1.116461 -0.379106 -0.944038 0.000000 0.000000 0.000000 
1.059250 0.168993 -1.295115 0.000000 0.000000 0.000000 
0.875114 -1.463984 -0.909690 0.000000 0.000000 0.000000 
0.969493 -1.178305 -0.861311 0.000000 0.000000 0.000000 
1.112260 -1.082048 -0.638293 0.000000 0.000000 0.000000 
0.717706 -1.005334 -1.407519 0.000000 0.000000 0.000000 
0.619602 -1.214985 -1.496753 0.000000 0.000000 0.000000 
0.803046 -1.657350 -0.957686 0.000000 0.000000 0.000000 
0.759718 0.153462 -1.846179 0.000000 0.000000 0.000000 
1.070576 0.003092 -1.200011 0.000000 0.000000 0.000000 
0.838713 -0.069374 -1.599615 0.000000 0.000000 0.000000 
0.836945 -0.191047 -1.548634 0.000000 0.000000 0.000000 
0.822065 -0.240712 -1.554197 0.000000 0.000000 0.000000 
0.897765 -0.425374 -1.330803 0.000000 0.000000 0.000000 
0.860393 -0.428265 -1.399134 0.000000 0.000000 0.000000 
0.805680 -0.427182 -1.501539 0.000000 0.000000 0.000000 
1.332282 0.119018 -0.764198 0.000000 0.000000 0.000000 
1.034243 -0.722668 -0.943944 0.000000 0.000000 0.000000 
0.692559 -1.158733 -1.385937 0.000000 0.000000 0.000000 
0.761584 -1.274958 -1.205505 0.000000 0.000000 0.000000 
0.749510 -1.118459 -1.297811 0.000000 0.000000 0.000000 
0.648401 -1.321618 -1.395537 0.000000 0.000000 0.000000 
0.652745 -1.378852 -1.361912 0.000000 0.000000 0.000000 
0.611293 -1.428660 -1.416914 0.000000 0.000000 0.000000 
0.600729 -1.360044 -1.467203 0.000000 0.000000 0.000000 
1.054296 -0.495430 -1.007955 0.000000 0.000000 0.000000 
1.266450 -0.304598 -0.697864 0.000000 0.000000 0.000000 
0.978427 -0.473296 -1.159163 0.000000 0.000000 0.000000 
1.114349 -1.269793 -0.550651 0.000000 0.000000 0.000000 
1.046027 -1.081823 -0.761777 0.000000 0.000000 0.000000 
1.187456 0.057737 -1.006653 0.000000 0.000000 0.000000 
1.024257 -0.778817 -0.937498 0.000000 0.000000 0.000000 
1.057627 -0.896663 -0.822766 0.000000 0.000000 0.000000 
0.797364 -0.244855 -1.598365 0.000000 0.000000 0.000000 
1.297174 -0.284712 -0.649500 0.000000 0.000000 0.000000 
0.996911 -0.848514 -0.957350 0.000000 0.000000 0.000000 
1.091727 -0.249788 -1.047802 0.000000 0.000000 0.000000 
0.939629 -0.316896 -1.301206 0.000000 0.000000 0.000000 
1.177616 -0.128781 -0.941782 0.000000 0.000000 0.000000 
1.159141 -0.197051 -0.945743 0.000000 0.000000 0.000000 
1.121301 -0.091467 -1.063335 0.000000 0.000000 0.000000 
1.132437 0.004826 -1.085545 0.000000 0.000000 0.000000 
1.100259 0.006338 -1.146162 0.000000 0.000000 0.000000 
1.095577 -1.430985 -0.513716 0.000000 0.000000 0.000000 
0.786283 -1.622911 -1.004276 0.000000 0.000000 0.000000 
0.733021 -1.440233 -1.184988 0.000000 0.000000 0.000000 
0.721304 -1.370189 -1.238061 0.000000 0.000000 0.000000 
1.069165 -0.674884 -0.900204 0.000000 0.000000 0.000000 
1.149013 -1.174459 -0.528603 0.000000 0.000000 0.000000 
1.015767 -0.473044 -1.089714 0.000000 0.000000 0.000000 
1.076586 -1.338140 -0.590510 0.000000 0.000000 0.000000 
1.035180 -0.597425 -0.998067 0.000000 0.000000 0.000000 
0.737439 -1.268560 -1.253339 0.000000 0.000000 0.000000 
0.733979 -1.199282 -1.290688 0.000000 0.000000 0.000000 
0.979241 -0.430891 -1.176563 0.000000 0.000000 0.000000 
1.057903 -1.009581 -0.771879 0.000000 0.000000 0.000000 
0.853392 -0.008677 -1.599348 0.000000 0.000000 0.000000 
1.145054 -0.424096 -0.870704 0.000000 0.000000 0.000000 
0.983620 -0.237242 -1.254789 0.000000 0.000000 0.000000 
1.038717 -0.131274 -1.199421 0.000000 0.000000 0.000000 
1.212413 0.053073 -0.958080 0.000000 0.000000 0.000000 
0.886140 -0.149039 -1.475729 0.000000 0.000000 0.000000 
0.790595 0.119487 -1.773502 0.000000 0.000000 0.000000 
1.018321 -0.257459 -1.181128 0.000000 0.000000 0.000000 
0.860898 -0.246376 -1.479331 0.000000 0.000000 0.000000 
1.249652 0.174319 -0.942795 0.000000 0.000000 0.000000 
1.044533 -0.542574 -1.005111 0.000000 0.000000 0.000000 
0.876722 -0.975592 -1.124560 0.000000 0.000000 0.000000 
0.481366 -1.674710 -1.549194 0.000000 0.000000 0.000000 
0.468268 -1.607345 -1.603644 0.000000 0.000000 0.000000 
1.135084 -0.300799 -0.944278 0.000000 0.000000 0.000000 
0.992719 -0.660683 -1.048948 0.000000 0.000000 0.000000 
1.164087 -0.484099 -0.808481 0.000000 0.000000 0.000000 
0.890167 0.006999 -1.537832 0.000000 0.000000 0.000000 
1.129625 -1.226627 -0.541449 0.000000 0.000000 0.000000 
1.154977 -0.246832 -0.931294 0.000000 0.000000 0.000000 
0.683950 -1.300960 -1.338528 0.000000 0.000000 0.000000 
1.313599 -0.250452 -0.634185 0.000000 0.000000 0.000000 
0.785076 -0.307473 -1.593323 0.000000 0.000000 0.000000 
0.847620 -0.366958 -1.450274 0.000000 0.000000 0.000000 
1.165103 -0.944596 -0.601169 0.000000 0.000000 0.000000 
1.019072 -0.655983 -1.001953 0.000000 0.000000 0.000000 
0.809795 -0.302271 -1.549595 0.000000 0.000000 0.000000 
0.932366 -0.894360 -1.057137 0.000000 0.000000 0.000000 
0.873516 -0.712571 -1.247862 0.000000 0.000000 0.000000 
1.071155 -0.251050 -1.085563 0.000000 0.000000 0.000000 
1.097661 -0.603829 -0.878814 0.000000 0.000000 0.000000 
0.599066 -0.738970 -1.747353 0.000000 0.000000 0.000000 
1.114857 0.054804 -1.140588 0.000000 0.000000 0.000000 
0.854986 -1.662882 -0.858461 0.000000 0.000000 0.000000 
0.784989 0.184282 -1.812850 0.000000 0.000000 0.000000 
0.788454 -1.372189 -1.112077 0.000000 0.000000 0.000000 
1.079467 -0.830925 -0.811405 0.000000 0.000000 0.000000 
1.058087 -0.772636 -0.877236 0.000000 0.000000 0.000000 
1.070641 -0.867424 -0.811565 0.000000 0.000000 0.000000 
1.106642 -0.526997 -0.896358 0.000000 0.000000 0.000000 
0.872566 -0.476847 -1.354784 0.000000 0.000000 0.000000 
0.979146 -0.822152 -1.002203 0.000000 0.000000 0.000000 
0.994688 -0.988075 -0.899235 0.000000 0.000000 0.000000 
0.946991 -0.823022 -1.061716 0.000000 0.000000 0.000000 
1.211379 -0.530181 -0.699826 0.000000 0.000000 0.000000 
1.239626 -0.673034 -0.583481 0.000000 0.000000 0.000000 
1.138526 -0.482176 -0.856956 0.000000 0.000000 0.000000 
1.087844 -1.019794 -0.711547 0.000000 0.000000 0.000000 
0.650012 -0.639091 -1.697002 0.000000 0.000000 0.000000 
0.759353 -0.977556 -1.342328 0.000000 0.000000 0.000000 
0.995005 -1.157245 -0.823180 0.000000 0.000000 0.000000 
1.050927 -1.322175 -0.645430 0.000000 0.000000 0.000000 
0.900683 -0.584518 -1.254375 0.000000 0.000000 0.000000 
0.951269 -0.590363 -1.157534 0.000000 0.000000 0.000000 
1.062970 -1.268077 -0.647130 0.000000 0.000000 0.000000 
1.207363 -0.329583 -0.796792 0.000000 0.000000 0.000000 
1.117989 -0.590500 -0.846893 0.000000 0.000000 0.000000 
0.875641 -1.666574 -0.818337 0.000000 0.000000 0.000000 
1.141729 -0.942612 -0.645596 0.000000 0.000000 0.000000 
1.163689 -0.885774 -0.630041 0.000000 0.000000 0.000000 
0.813870 -0.192494 -1.590973 0.000000 0.000000 0.000000 
0.850752 -0.683826 -1.303092 0.000000 0.000000 0.000000 
1.009814 -1.355085 -0.707340 0.000000 0.000000 0.000000 
0.709792 -0.586863 -1.608935 0.000000 0.000000 0.000000 
0.640083 -0.607271 -1.729692 0.000000 0.000000 0.000000 
0.778148 -1.310057 -1.158992 0.000000 0.000000 0.000000 
0.645539 -1.461193 -1.338606 0.000000 0.000000 0.000000 
0.612293 -1.308795 -1.468521 0.000000 0.000000 0.000000 
1.000028 -1.431913 -0.691297 0.000000 0.000000 0.000000 
0.791166 -0.390358 -1.545004 0.000000 0.000000 0.000000 
1.248849 0.055998 -0.891509 0.000000 0.000000 0.000000 
0.930995 -0.088546 -1.419152 0.000000 0.000000 0.000000 
1.224429 0.152260 -0.979942 0.000000 0.000000 0.000000 
0.777413 -0.444443 -1.546498 0.000000 0.000000 0.000000 
1.154451 -1.011244 -0.591282 0.000000 0.000000 0.000000 
1.174284 -1.032509 -0.544848 0.000000 0.000000 0.000000 
0.712021 -0.378017 -1.697946 0.000000 0.000000 0.000000 
0.563372 -1.375140 -1.530061 0.000000 0.000000 0.000000 
1.227319 -0.377231 -0.738361 0.000000 0.000000 0.000000 
1.316661 -0.185797 -0.657323 0.000000 0.000000 0.000000 
0.789338 -0.960371 -1.294135 0.000000 0.000000 0.000000 
1.203810 -0.430390 -0.758441 0.000000 0.000000 0.000000 
1.055061 -0.621166 -0.950440 0.000000 0.000000 0.000000 
0.973798 -0.609097 -1.107207 0.000000 0.000000 0.000000 
0.669731 -1.459874 -1.294126 0.000000 0.000000 0.000000 
1.022399 -0.524484 -1.054414 0.000000 0.000000 0.000000 
1.248256 -0.472609 -0.656810 0.000000 0.000000 0.000000 
0.831295 -1.300608 -1.064200 0.000000 0.000000 0.000000 
0.848206 0.148917 -1.679309 0.000000 0.000000 0.000000 
0.817552 -0.824203 -1.302319 0.000000 0.000000 0.000000 
1.018145 -1.566176 -0.597656 0.000000 0.000000 0.000000 
1.083433 -0.657062 -0.881574 0.000000 0.000000 0.000000 
1.042752 -0.476087 -1.038089 0.000000 0.000000 0.000000 
1.162072 0.056485 -1.053382 0.000000 0.000000 0.000000 
1.297779 0.060073 -0.802177 0.000000 0.000000 0.000000 
1.056058 -1.508672 -0.552680 0.000000 0.000000 0.000000 
1.020200 -0.976330 -0.856948 0.000000 0.000000 0.000000 
1.132448 -0.982479 -0.645101 0.000000 0.000000 0.000000 
1.057403 -0.716417 -0.903586 0.000000 0.000000 0.000000 
0.881686 -0.437338 -1.355419 0.000000 0.000000 0.000000 
0.871010 0.105573 -1.617492 0.000000 0.000000 0.000000 
0.698370 -1.114279 -1.394943 0.000000 0.000000 0.000000 
1.000202 -0.592827 -1.065277 0.000000 0.000000 0.000000 
1.329269 0.057370 -0.742309 0.000000 0.000000 0.000000 
1.195305 -0.241909 -0.858364 0.000000 0.000000 0.000000 
0.873109 -1.563460 -0.869051 0.000000 0.000000 0.000000 
1.176425 -0.598045 -0.734668 0.000000 0.000000 0.000000 
0.707950 -0.279929 -1.749286 0.000000 0.000000 0.000000 
0.780945 -0.204148 -1.647110 0.000000 0.000000 0.000000 
1.254640 -0.431160 -0.663408 0.000000 0.000000 0.000000 
1.277184 0.006950 -0.816846 0.000000 0.000000 0.000000 
0.875146 -1.612106 -0.843556 0.000000 0.000000 0.000000 
0.872954 -0.831694 -1.195769 0.000000 0.000000 0.000000 
1.334091 -0.128692 -0.650327 0.000000 0.000000 0.000000 
0.974112 -0.346757 -1.223648 0.000000 0.000000 0.000000 
0.771492 -0.385856 -1.583663 0.000000 0.000000 0.000000 
